2.713964676326323655e+00 -7.495142225118565094e-01 1.044223703741164755e+01
2.934609284546763508e+00 -4.743555766396798212e+00 1.163281483945517714e+01
4.089231385971366706e+00 -6.601032830911537808e+00 1.622054021816800073e+01
2.735822515838437052e+00 -2.294459677443628554e+00 1.088010278153212163e+01
5.774864330383665312e+00 -2.984388121900187318e+00 2.319510943929069668e+01
2.615312229562201551e+00 -1.188721067875075921e+00 1.050799382046719366e+01
3.785115857821511387e+00 -1.861192053959082271e+00 1.523195347579765091e+01
3.290484842538263788e+00 -4.413033329167076246e+00 1.344499238023110621e+01
3.889687825772706997e+00 -4.712177797420122438e+00 1.593437670459509548e+01
3.609844953845870119e+00 -1.833578561558206310e+00 1.487486417875487987e+01
3.950864985357858128e+00 -6.307209697132022619e+00 1.640142457413972821e+01
4.062853445379572825e+00 -6.500428438585300839e+00 1.692099343353692831e+01
2.802238575326277292e+00 -4.679346711333445263e+00 1.169283458619803895e+01
2.943761265716579256e+00 -4.733143812431095832e+00 1.229195764881721331e+01
3.036853997381714798e+00 -4.230780627675426508e+00 1.276740691632901559e+01
4.268779012671407358e+00 -2.057071176049326766e+00 1.819116263568175285e+01
3.503628191126301417e+00 -4.431901951682415408e+00 1.507363725873858584e+01
3.669130833319637741e+00 -4.666359636548335743e+00 1.579155090348367807e+01
3.578189163897404601e+00 -4.557797209404996330e+00 1.542487986959413604e+01
3.703981955634195966e+00 -1.688791460775442177e+00 1.623344390135454773e+01
3.822957256914229607e+00 -6.847206607951681789e+00 1.711929267313477965e+01
3.178271009168132988e+00 -1.846186131520708207e+00 1.425397963250746258e+01
3.318756321652419405e+00 -1.934695318217381388e+00 1.490361825940857443e+01
3.556244644864554605e+00 -1.545134882154040934e+00 1.600770109267276098e+01
2.773458833255132205e+00 -4.799856853912130461e+00 1.268905876495749574e+01
2.459843216976990377e+00 -9.618036559564652199e-01 1.126919901740876995e+01
2.416417125252831255e+00 -1.276120207797000194e+00 1.107278857568712738e+01
3.743117325642870696e+00 -3.334812697429212491e+00 1.722910818740177064e+01
3.756412697227040187e+00 -6.591066035973258685e+00 1.734894314587630859e+01
2.661658232503631982e+00 -2.317690962073719163e+00 1.242445127553310513e+01
2.135926328609519143e+00 8.038976686849644837e-01 1.010660182548434349e+01
2.169495842440706923e+00 8.244933872253048524e-01 1.026569041886973999e+01
2.637240087567738200e+00 -4.388900526515226552e+00 1.272936856839369568e+01
2.345447994384470380e+00 -6.369513833647048040e-01 1.144458975021559688e+01
4.742519837624277201e+00 -2.971494779654836993e+00 2.322629621017161128e+01
2.236785543252984620e+00 -6.555426767411437483e-01 1.100171552720070345e+01
2.145324149074609554e+00 -6.276406497775109949e-01 1.065885132933785151e+01
2.945217833438363186e+00 -2.716843080890430695e+00 1.474503192881987879e+01
4.112740445799494715e+00 -1.492251107156218337e+00 2.065818092385327986e+01
4.397516940037925259e+00 -2.204821856693097715e+00 2.209666328810699554e+01
2.949882931594889346e+00 -2.513094526729349187e+00 1.482857736562534434e+01
3.453549532050144588e+00 -6.361824319971855601e+00 1.748559033685783604e+01
2.611973103992951462e+00 -1.782399018567346838e+00 1.335136655162150277e+01
3.814322803991768485e+00 -6.825994241310512578e+00 1.951494475464751588e+01
2.547744439146390594e+00 -4.544033471018234849e+00 1.304026202289953318e+01
2.499900672637674237e+00 -1.730411201785719610e+00 1.280535535513285872e+01
2.552909082329871460e+00 -1.773654350049313821e+00 1.307920844012256190e+01
2.514654457017304612e+00 -4.507368607857404008e+00 1.289669892357592218e+01
2.550505894440135535e+00 -1.769608471081157264e+00 1.310981640048379937e+01
2.519164973486661907e+00 -4.153509888906279812e+00 1.334986594092620571e+01
2.641521884667611175e+00 -4.390889769866714865e+00 1.408143237412700977e+01
2.614075238199795148e+00 -4.348525385981044877e+00 1.396747251201294127e+01
1.872169329042025820e+00 -4.757239080461944103e-01 1.038910693872427515e+01
3.517876655388844309e+00 -3.354429989989379468e+00 1.954439662051089144e+01
2.282761980915243960e+00 -1.086650365505624993e+00 1.327514788064664941e+01
2.327800863537354825e+00 -1.799591056071052630e+00 1.358312943693543495e+01
2.385335265306654851e+00 -1.880584978577098720e+00 1.403083208581736230e+01
2.347048376942416414e+00 -1.818565703870393069e+00 1.389429101941498956e+01
2.294721319389646297e+00 -1.830851923427766481e+00 1.359706293583131043e+01
2.176941345740438294e+00 -1.206830156815649868e+00 1.302892445442074276e+01
2.278737918902399961e+00 -1.807721168669731204e+00 1.365557285630626616e+01
3.584717120056992279e+00 -2.655387787336903394e+00 2.152360360306766651e+01
2.342307890341082111e+00 -1.753134976576864679e+00 1.423007273170358999e+01
2.144694547452086653e+00 -1.794784219651694324e+00 1.306112934502960421e+01
2.310638474602049630e+00 -2.950895954414784583e+00 1.410698755102046853e+01
2.118383206776435657e+00 -1.205231863085476585e+00 1.296711873490337297e+01
2.225490085009979246e+00 -2.873429041733272182e+00 1.365687003944905875e+01
2.118656150307312913e+00 -1.088462871277869004e+00 1.312851700122328147e+01
2.821971522514927333e+00 -2.112018390928766642e+00 1.779023026132499297e+01
2.045974381682165166e+00 -1.644158106508131434e+00 1.289881922742085152e+01
2.079113692182535722e+00 -1.884942476267253975e+00 1.312034330660041448e+01
2.071235675100348228e+00 -1.860859695011189086e+00 1.310525643492529113e+01
2.585250606788594752e+00 -4.777551586840758979e+00 1.639119406869605911e+01
2.631923575718487118e+00 -4.857184829228922140e+00 1.672854387718059144e+01
2.040607368344719230e+00 -1.877838813537255236e+00 1.300861538472288892e+01
1.994506718199504425e+00 -1.842731883076616839e+00 1.271920055449576559e+01
2.041568690448862355e+00 -1.793320643433460759e+00 1.304211349172586765e+01
2.243542322518555565e+00 -4.424870983052106577e-01 1.440913560201803811e+01
3.254930886761173259e+00 -6.074571877142570742e+00 2.096735064990106068e+01
2.895510890810287119e+00 -7.111983525928224026e+00 1.875005826741087489e+01
1.985494817820111724e+00 -1.786888630911035891e+00 1.298380802182940918e+01
2.027389679636506514e+00 -1.809484522590077304e+00 1.332631071602798656e+01
1.969891487411813413e+00 -1.525142052484339317e+00 1.308795995439771431e+01
1.838064195292756553e+00 -1.457992113995433048e+00 1.221878577874351457e+01
1.514795280804785094e+00 -1.351591528938074216e+00 1.030604986485421470e+01
2.755416434845564755e+00 -7.545193134531861467e+00 1.885219708937496819e+01
1.540577006859360942e+00 -1.458072049716526042e+00 1.065087832397169976e+01
1.489773987684017031e+00 -2.202341168099696045e+00 1.039433002676486950e+01
1.935251697586125585e+00 -1.792940196180242252e+00 1.353257578982616849e+01
1.901639684595178403e+00 -3.167239576233217502e+00 1.332165032227869084e+01
1.997937669207052513e+00 -4.791864313797112196e+00 1.411900652633736897e+01
1.908669363855149959e+00 -1.285730258196805087e+00 1.350225483742132226e+01
2.025980415016134462e+00 -1.872340653379999109e+00 1.434134768449439612e+01
1.825959528598490422e+00 -4.610692255112363469e+00 1.294726478881227649e+01
1.764530921373635097e+00 -1.684604199865424645e+00 1.261836591055330992e+01
1.741154028628389749e+00 -2.571319747135142109e+00 1.246413191363778772e+01
1.833426024170639490e+00 -1.905538858326969009e+00 1.316701695731296518e+01
2.738323907431511550e+00 -7.287320202707714856e+00 1.980562201762815988e+01
1.872333295755021165e+00 -1.081495386554620630e+00 1.361610359097546130e+01
2.025350500127629516e+00 -2.872203064359754254e+00 1.474692159656794033e+01
1.746690008319931708e+00 -5.097813607268147251e+00 1.280248992318978551e+01
2.236379471662275353e+00 -3.141572527053737574e+00 1.646505886888531833e+01
1.739856700775748610e+00 -4.569857593856230693e+00 1.282364873692206508e+01
1.784441878151761252e+00 -4.091195615384358497e+00 1.319885484260268171e+01
1.779853823116809952e+00 -4.543704614412715337e+00 1.325444961354993367e+01
1.978661160058856394e+00 -4.578234806316009653e+00 1.476481093018756674e+01
2.031943995554229332e+00 -4.706768757168518391e+00 1.523996366961233306e+01
1.799685158259015649e+00 -4.177900539189298712e+00 1.352805632389233104e+01
1.954147543437581014e+00 -4.536531600265755415e+00 1.468943166533547640e+01
3.009870635981673370e+00 -2.882892588447454774e+00 2.276675915498924141e+01
1.713079586973308199e+00 -4.778175782076371725e+00 1.329108912894913352e+01
1.706365296150002431e+00 -5.742162839572437782e-01 1.363124815189657468e+01
2.844324110915926962e+00 -2.604378922929802442e+00 2.287347746811281723e+01
2.915117393075388641e+00 -8.067147880951296202e+00 2.365378214903179099e+01
3.036740556038781236e+00 -8.410563109729210396e+00 2.474139535503635301e+01
1.717216805810196201e+00 -5.762508553366877395e-01 1.401770116488146378e+01
1.654208027760534216e+00 -1.724806635153097067e+00 1.364481101845734656e+01
1.470395760833138166e+00 -4.502877309495955771e+00 1.221905440575572932e+01
1.616771913424424723e+00 -1.747901770089066220e+00 1.351876934523729368e+01
1.546176583540841198e+00 -1.682680693669076577e+00 1.316346447828644450e+01
1.656009639434298242e+00 -1.855123996088822169e+00 1.435753949382733197e+01
1.654413265857239468e+00 -4.606707998467226339e+00 1.464473057850204718e+01
2.668878438972998701e+00 -7.103728665764669437e+00 2.364238171152018708e+01
1.585422319484934395e+00 -4.473076533744379191e+00 1.417747752672240757e+01
1.805406750807508898e+00 -5.184101383891765558e+00 1.634556611967765605e+01
1.335468812649410086e+00 -4.444349666714959568e+00 1.210380368308454635e+01
2.455328269214561487e+00 -7.889004205429678507e+00 2.251644673332545921e+01
1.393488679919124174e+00 -4.518196572456186111e+00 1.310960343898758396e+01
1.868799012937170767e+00 -5.122079863911713105e+00 1.774541353737957294e+01
1.573960137152782712e+00 -4.965008827789775481e+00 1.499509551800328033e+01
1.861693107767372624e+00 -5.124616185125220547e+00 1.775614903712120807e+01
1.358456761647211630e+00 -4.518179651311088563e+00 1.303748530888873702e+01
1.185194353301590509e+00 -4.392039514224677532e+00 1.191719874525771772e+01
1.276148116559910672e+00 -4.545479296257441959e+00 1.283680268902734056e+01
1.292387869036355275e+00 -4.751772207055151576e+00 1.304920772516428151e+01
1.086406044949211225e+00 -8.012011581642006774e-01 1.146998141910580138e+01
1.035785810955130559e+00 -7.888122707864280159e-01 1.099239715361495762e+01
1.260036958722837497e+00 -1.226211356670423164e-01 1.342162484732248551e+01
1.392218919138523026e+00 -5.147079952428873284e+00 1.485538791840150452e+01
1.062383327364331276e+00 -8.279059138183723077e-01 1.139113812960398242e+01
1.105692665874398628e+00 -8.581408558701603129e-01 1.190100397495632123e+01
1.017582858994130035e+00 -8.136982756287047813e-01 1.098151094308258102e+01
1.068903418993079280e+00 -1.199038532722939809e+00 1.170764160199784243e+01
1.274680006417345135e+00 -5.563108415229709003e+00 1.399509267004230928e+01
1.540360786741785448e+00 -5.399212365529114876e+00 1.702268493130232585e+01
1.193845970852458693e+00 -5.296376279749603455e+00 1.322287901845168534e+01
1.103814115809959917e+00 -4.472179732820237064e+00 1.225842514932945981e+01
2.063103272185509596e+00 -7.818297160908371346e+00 2.308623106853776008e+01
1.045737732799317365e+00 -4.435594128317936757e+00 1.190196834780345370e+01
7.408771399986543438e-01 8.973951100347066570e-03 8.493051565589592400e+00
9.046747678692641514e-01 -1.093893584758420356e+00 1.054099899428421772e+01
9.967233954075309654e-01 7.999715328979786766e-02 1.165591933673295344e+01
7.826069200919600899e-01 -5.664549789292692150e-01 9.186972233925835951e+00
1.093059330606875212e+00 -4.532280562289148662e+00 1.314933794700777625e+01
9.537252654211858527e-01 -7.176932329560128387e-01 1.149576793173870293e+01
1.640272517670617880e+00 -5.755551132846179030e+00 1.982706394516812409e+01
1.011119700124755383e+00 -4.405329695004517987e+00 1.237644963947090915e+01
1.092716481699117947e+00 -4.606958044915805850e+00 1.342544235849183032e+01
9.159340134513614951e-01 -7.235032663959541921e-01 1.125706071588153456e+01
7.717704691526227068e-01 -5.892604465298474370e-01 9.542327882240671855e+00
1.022823770137654131e+00 -4.350982247729222152e+00 1.269804501985586143e+01
9.696246414077605014e-01 -4.390008803447981833e+00 1.216707530624798927e+01
1.561743113377840109e+00 -7.852809717195206041e+00 1.968343904412867573e+01
1.493767629450455159e+00 -5.563698680152038278e+00 1.926843006112800794e+01
9.018010227814431401e-01 -4.251418072119006020e+00 1.246186713718070926e+01
8.753572899468394786e-01 -4.553749243447207995e+00 1.291755672482424622e+01
7.587168040228691179e-01 -8.355070556620787237e-01 1.120934520028603565e+01
1.241301582230410316e+00 -9.766910347905197742e-01 1.855549238921780031e+01
6.517384044313433433e-01 -3.392338293529513216e+00 9.842179863028565734e+00
8.090617556630270713e-01 -4.317324304782609978e+00 1.224008583471501055e+01
1.362268327909088583e+00 -1.117732231995583136e+00 2.066363888030071294e+01
1.292529693308248406e+00 5.935124268540570291e-01 2.021979539826799410e+01
1.321593095837391374e+00 -8.740543526839543276e+00 2.208088616170602236e+01
1.051804387782660166e+00 -8.726955863470772234e-01 1.815143807456374248e+01
9.572752186493089788e-01 -7.119244044628993962e-01 1.652524230492467083e+01
5.411042493793609687e-01 -6.146281694469969414e-01 9.410575793943552370e+00
1.006957807863376964e+00 -8.516252430881171565e-01 1.783255941703233205e+01
6.419174865905207250e-01 -7.904169754150304206e-01 1.241054657324256638e+01
1.177348954730677910e+00 -7.802496357820452921e+00 2.316169201926594923e+01
7.237752661718137581e-01 6.559401408466392080e-01 1.479513245330026550e+01
1.158939671297374963e+00 -8.093007214215758083e+00 2.396698444266708705e+01
8.653053722071220033e-01 1.004164557808821974e-02 2.194906159918646793e+01
3.690149897343240060e-01 1.737149358144364497e-01 1.037309233032964606e+01
7.543916428282103626e-01 -3.079463950321941756e-01 2.392774802541730494e+01
4.293649587096640130e-01 -6.673679530560067130e-01 1.387890645050512717e+01
1.726996770822099847e-01 -1.336413132186950348e+00 1.011162108294346140e+01
1.703267581386583573e-01 -1.357308920341014913e+00 1.062600262472614432e+01
2.030501541049240521e-01 -1.706273802864616718e+00 1.327778665746582831e+01
1.850512851075194198e-01 -4.230061804998692665e+00 1.834158944476619979e+01
2.863356797623763106e-02 -1.232637662237580312e+00 1.042462980018246199e+01
-1.415378833017489069e-01 -4.219221248429454896e+00 1.221548145450245038e+01
-1.426838755941302050e-01 -4.217830042533094570e+00 1.221081242807029277e+01
-5.536506349626937190e-02 -2.445365093363930098e-01 4.163682759450662019e+00
-1.470734026179122689e-01 1.042305061512580205e-01 1.020395448624451795e+01
-1.658193762837704699e-01 -4.191737007314664254e+00 1.138356908221259900e+01
-2.590878405221094249e-01 -1.603487059749802546e+00 1.562633078721327173e+01
-1.510632354008033251e-01 -3.254590208905035364e+00 9.028472164764618668e+00
-2.872404124977412376e-01 -1.699774247444852504e+00 1.634680200320773835e+01
-2.744792095363847717e-01 -1.567566797438900483e+00 1.170654752033265211e+01
-4.735849036566042169e-01 -5.027806785870270190e+00 1.766962266549831284e+01
-2.685062441453476278e-01 -1.231699012506173530e+00 9.341425894888468306e+00
-4.009799618980616764e-01 -1.558337106423572482e+00 1.261983868888172289e+01
-4.589449604926496562e-01 -3.790560768663047142e+00 1.205458279429878843e+01
-5.114722228107676516e-01 -5.062620072380333625e+00 1.339095657899070346e+01
-4.887081575642459597e-01 -3.949613688424036706e+00 1.256631993606624320e+01
-5.150846886086466458e-01 -4.986619474238342065e+00 1.317815600721114677e+01
-3.928140739072280008e-01 -3.141111684361124201e+00 1.000329139954470925e+01
-8.132573208829171341e-01 -8.224849287695759514e+00 2.039739698630924281e+01
-4.969634449529057307e-01 -2.119384386366263973e-01 1.220114244173711171e+01
-6.321068325640051278e-01 -5.004706003441517836e+00 1.468876306500104967e+01
-9.121503232188667987e-01 -7.422778310825463244e+00 2.102654812898141046e+01
-9.571615711142247296e-01 -7.562178591696697261e+00 2.205207224816033218e+01
-6.759416759499854432e-01 -4.993740275517975391e+00 1.492332279265030337e+01
-5.317584330672167070e-01 -7.388389141590963050e-01 1.143501299689768835e+01
-4.166295343285345010e-01 -5.902760101923484326e-01 8.841225428349005711e+00
-4.194625638206492813e-01 -5.901900876998231738e-01 8.833143829456416185e+00
-4.249079942045796421e-01 -5.783464525950983148e-01 8.859763191308681840e+00
-5.394049744096723886e-01 -7.249790862934589741e-01 1.121194105202543412e+01
-5.288457231364522837e-01 -1.501068173936969952e-01 1.099019491934738468e+01
-5.612342819742357491e-01 -7.172536042034498571e-01 1.144296980121405127e+01
-6.097579029134932993e-01 -1.428928091584624194e-01 1.190438640117881874e+01
-6.404987102009781497e-01 -1.592956818988381595e+00 1.236489236740484188e+01
-5.348068079391781193e-01 8.784899097743509300e-02 9.773850873584123633e+00
-5.995767326160447164e-01 1.515275240372945809e-01 1.058378395101132341e+01
-5.927832298901090091e-01 6.362355043410838906e-02 1.027036730592162961e+01
-6.631317956469027219e-01 -1.539497652892742874e+00 1.139087692431742127e+01
-1.401559962099765855e+00 -2.484954241530660912e+00 2.375433528151124918e+01
-1.303086397030992494e+00 -2.343115916929220610e+00 2.193398233866839320e+01
-7.548229660646931238e-01 -3.872410810294920847e+00 1.253303780707432935e+01
-7.776630555163400738e-01 -3.831340174985839120e+00 1.240858251808627699e+01
-7.804697994136511330e-01 -1.696287638794292452e+00 1.243189343636051625e+01
-8.542033291614180568e-01 -4.021158863955487384e+00 1.309520005546487020e+01
-6.035225200989797756e-01 -5.508883554003838334e-01 8.462283222951269224e+00
-1.599491982052700045e+00 -9.536904866110893497e-01 2.180438630498404606e+01
-1.022971124388248221e+00 -6.386219008552271870e-01 1.371268014957963111e+01
-9.981374114394276909e-01 -1.725398889923177581e-01 1.286053052288528775e+01
-8.095922445879402130e-01 -9.147660535275418114e-01 1.041313294767459752e+01
-7.791050135813726296e-01 -5.649748639575413733e-01 9.925694525217576114e+00
-8.336357174093315114e-01 -1.060717789139944633e+00 1.044426757296981201e+01
-8.112233848758410026e-01 -7.554898261158154993e-01 1.015710485188732193e+01
-1.997310557774620410e+00 -2.764261225052127458e+00 2.453448476518057220e+01
-8.455793591512988927e-01 -7.440367396172955505e-01 1.025184677217997908e+01
-8.097875337422476560e-01 -7.472248850006226739e-01 9.773507788650718453e+00
-9.336323753316283502e-01 -1.103261431475544230e+00 1.124254910703487198e+01
-8.276697325255416571e-01 -7.468910822729375454e-01 9.758570210592729666e+00
-9.753769067563408113e-01 -1.104546324615072184e+00 1.148618980474392970e+01
-9.322592614256626220e-01 -3.848576299187196792e+00 1.079523199619830542e+01
-9.426925246371390399e-01 -3.875797848949393831e+00 1.087050590376865067e+01
-9.511633097900575873e-01 -4.010109848139510547e+00 1.093143486595990588e+01
-1.069098527147643640e+00 -7.106484085644781956e-01 1.218620833363651990e+01
-1.577962880839543613e+00 -4.994659926081062018e+00 1.758552962205576620e+01
-1.916189482461876370e+00 -2.441710432555940447e+00 2.135004980903947569e+01
-1.034915207196973608e+00 -3.987566005633913502e+00 1.145310428219232080e+01
-9.762648060022611762e-01 -4.077682896156356485e+00 1.071239643464550717e+01
-9.896121104838209170e-01 -4.043840796433102014e+00 1.059200054354247378e+01
-1.066167805787306744e+00 -4.103396716775933761e+00 1.124769233368621180e+01
-1.067559084978600970e+00 -3.962301472766965205e+00 1.115185899606684217e+01
-1.048464543940120119e+00 -3.999255789313369558e+00 1.091173627618281827e+01
-1.135628643381128455e+00 -4.172779845023206313e+00 1.153971020107361412e+01
-1.078825225572934254e+00 -3.977407346132864951e+00 1.090791394378396539e+01
-1.059997688507509084e+00 -1.484990705440427439e+00 1.066932712790665505e+01
-1.132953051454790971e+00 -4.053100938376966944e+00 1.123186130326148735e+01
-2.244546452821697180e+00 -7.747659518280500812e-01 2.218253628225050988e+01
-1.694827833279837881e+00 -6.071837641084909531e-01 1.654874185777151752e+01
-1.185641416899487988e+00 -1.548561235327034602e+00 1.151946009700299456e+01
-1.713258677132566410e+00 -6.074133959528440485e-01 1.658302070266609007e+01
-1.157462877803528967e+00 -1.489425808851958521e+00 1.115420191321143051e+01
-1.202785137151077821e+00 -1.529201646320047070e+00 1.150993303544096236e+01
-1.269981155533233874e+00 -1.587784931370745722e+00 1.203849955526349369e+01
-1.210875166022071348e+00 -4.143978163122552516e+00 1.114608490649925443e+01
-2.205929797708361839e+00 -9.783368617464746064e-01 2.017458653262520230e+01
-2.159029361679155823e+00 -1.555291397345820004e+00 1.970984532504724740e+01
-1.222388895665015518e+00 -4.123678817525844309e+00 1.108008765324113654e+01
-1.227619959966320673e+00 -4.128816049247945763e+00 1.112388246591759788e+01
-2.040086145495453529e+00 -8.869185042309026823e-01 1.843022017897746068e+01
-2.013379946550632127e+00 -1.455457476482969303e+00 1.818178512447971329e+01
-1.332047523416747037e+00 -4.153134696472935872e+00 1.190466126337145880e+01
-1.269822286035710679e+00 -3.889143475313351583e+00 1.132569100910809645e+01
-1.410962511853663282e+00 -3.793882029868847372e+00 1.227686167970910880e+01
-2.714355624761140895e+00 -7.705013718002572176e+00 2.342917282256878764e+01
-1.321486972430142792e+00 -3.890140852491326573e+00 1.136771125624063039e+01
-2.754251239935501694e+00 -7.504237053441640271e+00 2.283411142886565415e+01
-1.384907837104270456e+00 -3.863784362514184334e+00 1.145119452111342540e+01
-2.708391160830763589e+00 -7.884187723806162396e+00 2.238713718507595019e+01
-1.396990983434987177e+00 -3.828305300618792817e+00 1.132286752786260386e+01
-1.572345703024327745e+00 -4.023628093334902012e+00 1.250156174773224116e+01
-1.395661834972192317e+00 -3.802687467949330102e+00 1.096900784414896357e+01
-1.508425375039637473e+00 -4.005496913974166517e+00 1.176976760338637540e+01
-1.511340868723002551e+00 -3.995725533180685574e+00 1.170629428708705433e+01
-1.304980121507806734e+00 -3.836642786324456988e+00 9.984199669800315036e+00
-1.315465465667278178e+00 -3.877672719717538907e+00 9.916971199718803476e+00
-2.204305531559742182e+00 -1.801090316081162657e+00 1.652586455904354779e+01
-3.110975206962527384e+00 -2.611131132670520660e+00 2.323995777315577271e+01
-3.264648200176203385e+00 -2.619687128838345203e+00 2.438320465525769620e+01
-1.550366436815120430e+00 -3.933219998528881156e+00 1.145559719651630992e+01
-3.079454573735878498e+00 -8.822773574000789765e+00 2.260222367170742075e+01
-1.887903221893370675e+00 -4.683231409428343817e+00 1.362187968655192094e+01
-1.406669856488779180e+00 -3.747616701386769389e+00 1.013261062597122120e+01
-1.393798537589310715e+00 -3.717481431780968126e+00 1.003539318089730692e+01
-1.651409927802076183e+00 -3.946699697870789336e+00 1.174881251526842441e+01
-1.609853386846231249e+00 -4.111797487366110282e+00 1.136752828643542657e+01
-3.375856638603341064e+00 -7.891137765247669300e+00 2.361234310660842084e+01
-1.295207384219716262e+00 1.175597041084795874e-01 9.056795088274654404e+00
-1.365122072807903653e+00 1.501655828997303932e-01 9.537924169588974266e+00
-1.337317009659364730e+00 -1.513110084320829218e-01 9.268141682236878509e+00
-1.527219853743678968e+00 -3.939568719049183265e+00 1.047013324554416336e+01
-1.680472140068246523e+00 -1.795981554194740204e-01 1.151810981481202312e+01
-1.639154344272370167e+00 -2.043974046638264430e-01 1.117476566976738006e+01
-1.697124489672196868e+00 -4.025686599170953173e+00 1.108580924493430153e+01
-1.663182730126257836e+00 -1.790048886115339355e-01 1.072850757763230689e+01
-1.514005569076547930e+00 -2.050445968144552489e-01 9.752029118425326715e+00
-1.866852405294627593e+00 -2.005033949293196505e-01 1.196750605298925763e+01
-1.808576775417608529e+00 -3.114894889780904785e-01 1.156209410453245034e+01
-1.709831930070109252e+00 -3.835509089991208320e+00 1.091788140917663874e+01
-1.823101438407982666e+00 -2.540034724990040682e-01 1.160349469809253087e+01
-1.560929669988906809e+00 -3.835587436852441634e+00 9.838599518083317008e+00
-1.464694142565710289e+00 -1.100272193941841808e-01 9.181446885308879757e+00
-1.642134895150828999e+00 -3.955861641624955460e+00 1.011714705534771674e+01
-1.602703691681161224e+00 -3.836681539432122978e+00 9.839977660960787631e+00
-1.621620910785064540e+00 -3.878888709867999385e+00 9.944166838437144662e+00
-1.688008386385750681e+00 -3.960005093873659288e+00 1.034915863497892730e+01
-1.572352752283114441e+00 -5.860029412102300134e-02 9.569647414786532025e+00
-1.473024491650819501e+00 -6.952484409708656332e-02 8.756118584914265313e+00
-1.695251660655647363e+00 -3.839575416545353281e+00 1.004198847994723920e+01
-1.747684177688271889e+00 -3.772694147277289911e+00 1.027624045042686163e+01
-1.541294031447968393e+00 -1.010496250030305659e-01 8.969752461731932414e+00
-2.428343679780628595e+00 -4.773949440757049523e+00 1.403505673567464562e+01
-2.840934438455884337e+00 1.180513180824074165e-01 1.635029915200317419e+01
-3.865828127921118629e+00 -7.679637798388096570e+00 2.209950368340340177e+01
-4.231913319423634690e+00 -8.232624500532274681e+00 2.403696239797715251e+01
-1.992752760237741727e+00 -1.573536483694889521e-01 1.128303419964710130e+01
-1.649056489127627145e+00 -8.623276690679139433e-02 9.293852286433518017e+00
-1.609950001620368942e+00 -1.051636000741750093e-01 9.003715129193210487e+00
-1.609994901912235266e+00 -4.794896810359149109e-02 8.979634513114941541e+00
-1.553240737183347653e+00 -6.029644714556084417e-02 8.624389413804216531e+00
-2.027438212788061023e+00 -3.713723045577834281e+00 1.124769627118002724e+01
-1.984769055952344319e+00 -3.604158856880226303e+00 1.089988347847356920e+01
-1.653598190280931579e+00 -2.052037864724104155e-01 9.004212404684118098e+00
-4.235498879852520382e+00 7.339147990249390852e-02 2.279336272876981795e+01
-1.680859097832918314e+00 -1.195684308039867902e-02 8.974693002664482222e+00
-1.622723731543382453e+00 -1.648092042500844470e-02 8.663959171297362261e+00
-1.625925285544092214e+00 -9.920391417561520708e-02 8.674929351797192822e+00
-1.633830708058893411e+00 -2.562419311039647041e-01 8.698644358312821012e+00
-1.618017098853019808e+00 -3.458983405936161826e-01 8.603370394726365333e+00
-1.672984583258029012e+00 -4.833366252143888597e-01 8.859310806776891312e+00
-3.909962856845392576e+00 -7.326216873052167955e+00 2.037262474778900767e+01
-2.971056582446659711e+00 2.521503863906192633e-01 1.522565114599876424e+01
-1.829408099034244062e+00 -4.005804597814556445e+00 9.363303178196549226e+00
-1.702181717928004323e+00 -4.392696215758966627e-01 8.643091904881638143e+00
-1.776488483659334428e+00 -5.508092185827256904e-01 8.975286631387659142e+00
-4.602443577844026024e+00 -8.130974458940880112e+00 2.325040960057041062e+01
-1.708402956899458314e+00 -5.418932365898929682e-01 8.534037071304021893e+00
-1.874943967581597093e+00 -5.952744867769562687e-01 9.207369615130392759e+00
-3.124853730315090949e+00 2.575053391400093372e-01 1.476860886433501285e+01
-3.266546135195894873e+00 3.389523789647366780e-01 1.493960097214138649e+01
-3.367885861165099914e+00 -4.579879796263868763e-01 1.540058819401004087e+01
-3.420316982268580830e+00 -2.202924040071196077e-01 1.548332157890251892e+01
-3.617946783562182134e+00 -3.861593584208268815e-01 1.595564746998661043e+01
-1.904202441650937550e+00 1.830428312593449236e-01 8.283065382156877376e+00
-2.249395680825175159e+00 -8.373046636765049122e-01 9.753477401341983821e+00
-4.035718023986234471e+00 -5.525541224792172024e-01 1.749096309346521849e+01
-2.305690365391101615e+00 -8.688153176865954785e-01 9.990995587339620343e+00
-2.477887233674865630e+00 -8.556454418346519653e-01 1.071308607432205839e+01
-2.215609177863990809e+00 -8.359046795934435004e-01 9.577707208010915352e+00
-2.042273897624231616e+00 -7.601906211988262996e-01 8.826882993937564592e+00
-1.907001417448856317e+00 2.753776997325526610e-01 8.177543789725215007e+00
-3.879931654717853284e+00 -6.702080537096976043e-01 1.651548097008936367e+01
-1.941839384182862061e+00 -7.466911945555552987e-02 8.194469071309535835e+00
-2.321456633624162880e+00 -3.877134245663686474e-01 9.691791840425512561e+00
-2.575127238027708376e+00 -5.108471220586882078e-01 1.073465417966191460e+01
-2.220753794501340472e+00 -3.777344295354851389e-01 9.233105961878985468e+00
-2.291019327830803753e+00 -5.024620662436083407e-01 9.479849909065309888e+00
-1.916427504811907934e+00 -1.563851050529202202e-01 7.907112196440172269e+00
-2.303360634045983346e+00 -5.094713253464917546e-01 9.495511713069653581e+00
-2.138528028660146685e+00 -4.095941790747014144e-01 8.802998524924495527e+00
-2.345744691692978279e+00 -5.152294114993035690e-01 9.610011296461038910e+00
-2.147450264316820512e+00 -1.262263771677434587e-01 8.788886249816084018e+00
-2.374304385775286352e+00 -6.386421424687008797e-01 9.714151495649227641e+00
-2.260923509977990520e+00 -1.459800484704602275e-01 9.236027571583033335e+00
-2.320325229978177806e+00 -6.035791592210355549e-01 9.425717257766651258e+00
-2.346364654499537572e+00 -6.537054803203528053e-01 9.507772190225523445e+00
-2.364357390822629856e+00 -5.991654336533515091e-01 9.539000230803065250e+00
-2.274499229390021693e+00 -4.879171750732889112e-01 9.098075427725763831e+00
-2.108550293832077482e+00 -4.479372551955070891e-01 8.421862845506405293e+00
-3.275255332738640668e+00 5.473176499047174293e-01 1.257667736975642470e+01
-2.322372124071773403e+00 8.049022863829986829e-02 8.903901500376196765e+00
-2.277872065084334707e+00 3.145193622233378727e-01 8.690094951557982839e+00
-2.155938984344562215e+00 2.827855055145709340e-01 8.195605375849188690e+00
-2.199148438757648538e+00 3.215822239466482602e-01 8.352848713454354979e+00
-2.155291760054693473e+00 1.843454166408176609e-01 8.029124268154086863e+00
-3.081482601156501744e+00 -3.863360804309982077e-01 1.089969331970495325e+01
-3.458372800100517175e+00 -3.638962064281988096e-01 1.222444656477360425e+01
-3.155881640968955182e+00 -3.759159047559060829e-01 1.115060439238162715e+01
-3.089119498571261335e+00 -3.785730246682529332e-01 1.091342090529269271e+01
-2.481884617804886339e+00 -5.179495288453830198e-02 8.758545766754794570e+00
-2.992353604378707566e+00 -3.522858703680332160e-01 1.051361098362536772e+01
-2.864587003107502028e+00 -3.997342187690339887e+00 1.005944046399858571e+01
-2.771707080845167148e+00 -3.863574436643916865e+00 9.655828925067103441e+00
-3.031234625425577534e+00 -4.214480863500018160e+00 1.024124468175676306e+01
-2.919847866293934668e+00 -4.036253578445496260e+00 9.765977872383070135e+00
-3.208610866637588099e+00 -1.397763328962493334e+00 1.065109132608392706e+01
-3.255747995907791736e+00 -1.408855052599958357e+00 1.078617675854276392e+01
-3.461216239603202904e+00 -1.502744562030666753e+00 1.144045708052242460e+01
-2.747985685261655764e+00 -5.463405349251822252e-02 9.037512593751872103e+00
-2.759543263820730896e+00 -3.845769164466050771e+00 9.034870116873413792e+00
-2.652381338778537767e+00 -1.227165472983926531e-01 8.542322179590735587e+00
-2.795335048987546589e+00 -1.042032634927511775e-01 8.957284310561789198e+00
-3.615450814116567990e+00 -3.558329246486186648e+00 1.156824767735588644e+01
-2.606228482744602726e+00 -1.361852382554082086e-01 8.336498150013090580e+00
-3.418537797194624250e+00 -3.368919756952736044e+00 1.087951457781777975e+01
-2.932029829975247193e+00 -4.052374368601797450e+00 9.327928122271721634e+00
-3.461947117615104652e+00 -3.409864455295471330e+00 1.098604416533555650e+01
-3.412839603896687724e+00 -3.304766812160102152e+00 1.081417816581999425e+01
-2.785901507412373412e+00 -2.537273829285422999e-01 8.687350024929102688e+00
-2.809999544342873801e+00 -2.889344448480973826e-01 8.626917694942299875e+00
-2.906760443637795177e+00 -2.425062015487622902e-01 8.903848986862495707e+00
-2.621453503754423320e+00 -2.723035255150355050e-01 8.007491737890452654e+00
-4.023960366471500016e+00 -3.614520618023435272e+00 1.173382510938643541e+01
-2.726136946240396153e+00 3.213865809881137903e-01 7.899797014196318301e+00
-4.253484578601989696e+00 -3.748285569897536362e+00 1.229082775438109998e+01
-4.058203696911554914e+00 -3.584931886580381644e+00 1.170995876180751516e+01
-2.890779407163003079e+00 -5.700191982596855556e-02 7.980836032984895745e+00
-2.928493665593306261e+00 -5.125596121033187264e-02 8.084250063438876310e+00
-2.879976436571092258e+00 -7.377674366436115516e-02 7.892033027667843648e+00
-6.050109775750182273e+00 -4.976665468108641299e+00 1.440885114381414667e+01
-5.216284077617157067e+00 -3.443866303209913493e+00 1.123336574637655616e+01
-4.426266359290736752e+00 -3.875324403815816776e+00 9.092224591999476857e+00
-4.444697782486358051e+00 -3.835731107592569522e+00 9.111011163731307150e+00
-4.312457915153101951e+00 -3.772193885798004409e+00 8.791908272678130132e+00
-4.265067341939604795e+00 -3.735862024195119702e+00 8.686138633298499556e+00
-3.239101070971920127e+00 -2.718837669119870348e+00 6.578770261237184336e+00
-6.927877965119342285e+00 -4.891999297952487780e+00 1.368746010126399426e+01
-3.389377509636333663e+00 -1.727458127875761695e+00 6.345272416666150939e+00
-4.881812264347644259e+00 -3.551963645381951640e+00 9.009035092833832081e+00
-4.740632534343824034e+00 -3.427541850124063316e+00 8.696572850048744030e+00
-4.930350458042637385e+00 -3.598117704652713300e+00 8.829997978098404587e+00
-4.909816720090336872e+00 -3.704989035263372976e+00 8.689078190620023179e+00
-4.743015952522658729e+00 -3.801118393830048348e+00 8.353261441697391376e+00
-7.175801709722172461e+00 -4.618065243360775618e+00 1.253796131900436350e+01
-7.053963064264650029e+00 -4.554860798377790232e+00 1.231903157300169482e+01
-6.409272298144520263e+00 -4.668179595590178366e+00 1.117277718521462049e+01
-4.839325521649390005e+00 -2.214522655542846330e+00 8.383738741474749290e+00
-5.275848711547314274e+00 -3.376426266026147260e+00 8.582804923030000310e+00
-8.702592790940776979e+00 -4.715955235737664175e+00 1.408249797583309260e+01
-8.513642429941890910e+00 -4.615056088679867941e+00 1.376308533082480245e+01
-9.063303037426361897e+00 -4.787722070260095997e+00 1.453252182740500942e+01
-6.221154813436287512e+00 -3.111614670497251378e+00 9.935261163370144644e+00
-2.160803845959165415e+00 4.826327851202417696e-01 3.444095862907080807e+00
-1.274912890787893716e+01 -8.162511136990900695e+00 2.026288024159253709e+01
-1.291636149029572778e+01 -8.289548576856958562e+00 2.043472359523032011e+01
-3.789924810494209151e+00 -2.632255980898996484e+00 5.893428459735519986e+00
-2.204696911507261436e+00 3.019174153621728696e-01 3.376115790211664525e+00
-5.791133740006868535e+00 -3.558792816157322125e+00 8.406192484776664031e+00
-2.660990797516236128e+00 1.244379002506358078e-01 3.846281993788678744e+00
-9.359820281595052194e+00 -5.042347136696434085e+00 1.346196191949638710e+01
-1.912133739085780881e+00 -3.403578588336780286e-01 1.936338223156925942e+00
-3.249263404623861984e+00 -3.529600005204847624e-01 3.273362816759890048e+00
-2.804874421047939936e+00 -3.054874910085885187e-01 2.824317479632652894e+00
-3.245318945847306846e+00 -2.753135686424085238e-01 3.239976786734914072e+00
-3.643655344822320341e+00 -2.769275815416817887e-01 3.632423197896727629e+00
-3.795934208739885740e+00 -3.068418745706353312e-01 3.783924994635605721e+00
-3.679453836024432434e+00 -2.836022956378586590e-01 3.659927846154347186e+00
-3.754105643228196065e+00 -2.893311397429825793e-01 3.734142065407615174e+00
-3.839818055577433942e+00 -3.039411125744728159e-01 3.759069344095873788e+00
-4.337103940737113916e+00 -2.844071677781749852e-01 4.001437791997515703e+00
-4.303242980590807676e+00 -2.862323479914868352e-01 3.965077937811473330e+00
-3.855692293561845396e+00 -1.866872764897579418e-01 3.543238391296788858e+00
-3.864154734060996965e+00 -1.761744257889706622e-01 3.543160789904828079e+00
-3.865827933433930941e+00 -1.804049323110498981e-01 3.532739686394597012e+00
-3.847742368127237356e+00 -2.195049706094520658e-01 3.478104042954882846e+00
-3.964784710881750662e+00 -2.193892946767648788e-01 3.537547042706654210e+00
-3.708054848071637100e+00 -2.256723905202105418e-01 3.304365987380017078e+00
-3.905555509681608140e+00 -2.435662484313282361e-01 3.473993822761241912e+00
-3.907714684800978500e+00 -2.436900645047192504e-01 3.466756045902948724e+00
-3.906164607530298039e+00 -2.232371336696797326e-01 3.463335913317651560e+00
-4.561476463652190283e+00 -2.454991971773083093e-01 4.043234671745318032e+00
-4.437454672479013595e+00 7.016349094103059292e-01 3.577278494408583587e+00
-4.773120733687867379e+00 7.771166559790405604e-01 3.726060327755535972e+00
-4.707204570453891179e+00 7.582052838658117633e-01 3.666172865869314901e+00
-3.495799158995553935e+00 -8.043466670478396363e-01 2.688062616085199252e+00
-3.768851804274311768e+00 -6.728506907116189872e-03 2.865351419791947851e+00
-3.568085339696854152e+00 -7.111634103957409359e-01 2.701420332144197189e+00
-4.581439670141088882e+00 -1.928821557043846502e+00 3.464641706906455010e+00
-4.551650098084784268e+00 -8.905030329653822463e-01 3.399259229271463401e+00
-4.981291553942726047e+00 -2.022458939536959210e+00 3.628769777306263489e+00
-4.118663125173663175e+00 -1.256930330971928744e-01 2.862709068863565243e+00
-4.120042997519355765e+00 -1.268397414901278608e-01 2.809370039473496838e+00
-4.124453928015607396e+00 -1.425663119496970443e-01 2.798737865734152397e+00
-4.502582007593719737e+00 -9.528722589717604496e-02 3.021346589181147291e+00
-4.256258337973370942e+00 -1.530646931093443408e-01 2.854793513573521402e+00
-4.443564075268796820e+00 -1.440389188197615522e-01 2.980395368216645746e+00
-3.568139350665533005e+00 -3.312844843408904727e-01 2.377157981903333273e+00
-4.461862703173424372e+00 -3.850673468349385953e-01 2.967180690976321422e+00
-4.567768312072661985e+00 -8.966752423684044848e-02 3.031979180049245493e+00
-3.626812116952621956e+00 -3.286964044983798905e-01 2.404535929126345284e+00
-4.177056699277561513e+00 -3.947154765202168236e-01 2.755664529925065054e+00
-4.763458936532726007e+00 -2.053146263805630145e+00 2.998902043741014989e+00
-4.347593464942158370e+00 -1.281810570707380414e-01 2.691076757390541641e+00
-4.008374570049613617e+00 -2.721482233767217318e-01 2.469244755426288851e+00
-4.270110142373642503e+00 -9.522595391494417805e-02 2.622630080511386019e+00
-4.173331177428854843e+00 -9.479827274844547513e-02 2.563177139707065511e+00
-4.327911163015207840e+00 -1.580601354553599347e-01 2.650982817749427234e+00
-5.591763479053896368e+00 -2.288508629123897187e+00 3.398469951642346665e+00
-1.121593133723549585e+01 -5.184653119923264164e+00 6.780746493787894735e+00
-4.350049258085110893e+00 -3.822977230976592478e-01 2.607388208761574511e+00
-4.334185100055056417e+00 -3.795576432404990097e-01 2.588962245448366950e+00
-3.626620671540421892e+00 -3.568240390048869615e-01 2.161532249657101001e+00
-4.274565867356298732e+00 -3.636442526097556915e-01 2.543957397992112401e+00
-3.615425453021742896e+00 -4.039933485935194857e-01 2.150661834986321796e+00
-4.489123275047466777e+00 -5.074772710815622645e-01 2.658933855786418388e+00
-4.823789231252433751e+00 -9.236966476770851198e-02 2.853292063316465565e+00
-4.590922409975354057e+00 -5.184885050132012063e-01 2.713398996620580039e+00
-4.806084515706893434e+00 -9.213421059714746453e-02 2.836646914496001148e+00
-5.085665207799586085e+00 -3.391730807887605170e-01 2.925477604078964955e+00
-4.608425861455719641e+00 -3.679949832163289525e-01 2.644186682475972994e+00
-3.904708804868935346e+00 -3.470139190990975675e-01 2.233880207750903235e+00
-3.738618336201185333e+00 -6.324261311259089802e-02 1.272803769660360462e+00
-3.905890553633375895e+00 5.067214643845331379e-01 1.161070547112955209e+00
-4.668586808667645194e+00 -9.725754504714542170e-01 1.362685289160384894e+00
-3.779043382679855512e+00 -8.933295471573382551e-01 5.979533411114816843e-01
-3.693790564305805990e+00 -8.835250471950529816e-01 4.753710171917784888e-01
-3.861185296374639364e+00 -9.223635394701972245e-01 4.939226536307942950e-01
-3.895314319459794561e+00 -9.036577088804269575e-01 4.058277543524603237e-01
-4.226034081310456436e+00 -1.009382176260869457e+00 3.918165587254794913e-01
-4.129062656561043099e+00 -9.248879663213267488e-01 3.731517365236976524e-01
-4.743562140124474524e+00 6.787636902192528687e-01 -4.193198411228001854e-01
-4.736255546889264423e+00 1.095105814475444639e+00 -4.471018828361928987e-01
-4.832523476229641624e+00 1.112784942342392780e+00 -4.760198895285943643e-01
-5.018510058522650752e+00 7.979092632115092343e-01 -5.029362725473718321e-01
-4.406634744227304168e+00 1.038414086895631527e+00 -5.124236652943811032e-01
-3.826476435596854575e+00 -6.769152653218416527e-01 -4.805548922407925638e-01
-3.677339333048557091e+00 -7.237922181954971057e-01 -4.659122277888315677e-01
-3.766292440001542285e+00 -6.698064941766334046e-01 -4.813327094720591948e-01
-3.876075810986798320e+00 -7.895803061071007267e-01 -5.661912444314980419e-01
-3.694543599384503718e+00 -8.253670622512233601e-01 -5.709145952645630073e-01
-3.983750966798808246e+00 -1.115007775608809704e+00 -6.236235351584751285e-01
-3.650512259138149584e+00 -1.025538660907538757e+00 -5.715070726736829476e-01
-3.921633338823392378e+00 -1.089320342486496340e+00 -6.198452987125874225e-01
-3.928860302213201816e+00 -1.109963248392236146e+00 -6.210106394765166904e-01
-3.880729340553501494e+00 -8.405203687854717609e-01 -6.532993793586595599e-01
-3.879138724134715943e+00 -8.423193849746233308e-01 -6.530661540158980705e-01
-3.805961638441532902e+00 -1.046487277938314975e+00 -6.518007376407833897e-01
-4.100441247240803833e+00 -1.114929523346706697e+00 -7.133654819363123289e-01
-3.921716030175697920e+00 -1.101097899761314336e+00 -8.574315158245480184e-01
-3.932059150725632168e+00 -1.102531812008568535e+00 -8.596999010510240069e-01
-3.682024422550633336e+00 -1.117972619666116829e+00 -8.446561524529122567e-01
-3.687207969146663711e+00 -8.053018557466369298e-01 -8.493135385548146177e-01
-3.987670617278845864e+00 -1.202067252682028853e+00 -9.230056046724258723e-01
-3.692466992563041561e+00 -1.120062567277375187e+00 -8.632692170027908007e-01
-3.687145909172725666e+00 -8.088455310404629728e-01 -8.695523722758705665e-01
-4.127390294829213602e+00 -1.183580724522539818e+00 -9.774776869409235180e-01
-4.146830570553285078e+00 -9.064571175632866185e-01 -9.913138241841278342e-01
-3.498877126139473770e+00 -7.587464353251958116e-01 -8.424629632288143100e-01
-3.861712222619848589e+00 -1.144483835611701306e+00 -9.468906979656473988e-01
-3.573816704088261798e+00 -8.755866975721787737e-01 -8.817506250689595149e-01
-3.539579376850300108e+00 -8.725053303557516182e-01 -8.778787470803709470e-01
-4.002719399623795304e+00 -1.037341247546172074e+00 -9.953628040841501212e-01
-4.009332069366871920e+00 -1.206928768774245153e+00 -9.982973199084911320e-01
-3.751152400716955881e+00 -8.144624642147999527e-01 -9.390016978512241153e-01
-3.708768286191875596e+00 -9.751831233863359483e-01 -9.654472629102514025e-01
-3.626843487124708609e+00 -9.494117556990239182e-01 -9.441837201750630237e-01
-3.412590558901123838e+00 -7.544291443835728916e-01 -8.926960953330445037e-01
-4.018657416902554402e+00 -1.073565397494666840e+00 -1.060319717686326157e+00
-3.623324050190828594e+00 -8.785144689960410203e-01 -9.564210397451810008e-01
-3.887695173101181734e+00 -9.074553422930105029e-01 -1.031591476433951993e+00
-3.848852087425569835e+00 -8.983735573532211083e-01 -1.021321988962742067e+00
-4.058122777805415637e+00 -1.045194555934241265e+00 -1.080654819793157806e+00
-3.218631500625762865e+00 -7.516666360350278131e-01 -8.573892916625573957e-01
-3.844149167392239441e+00 -8.825056600655015737e-01 -1.026371966251572898e+00
-3.775835531782778087e+00 -9.490666663883601251e-01 -1.009900042405292853e+00
-3.966781177062884467e+00 -9.052153472485838792e-01 -1.078190353430755311e+00
-3.842995970991494925e+00 -8.970616642519574357e-01 -1.076186230688063628e+00
-3.821452023550946819e+00 -9.156554643214634415e-02 -1.071600453149999854e+00
-4.628828693673968431e+00 -1.132553758691678070e+00 -1.318185566939308107e+00
-4.518147242950777631e+00 -1.104306026200903901e+00 -1.294282836268509262e+00
-3.860758519102373665e+00 -3.743040434725918714e-02 -1.107440377219744088e+00
-3.893990931264247113e+00 -4.841339481120578853e-02 -1.117528039206745927e+00
-3.885323724603172657e+00 -9.446218066778557798e-01 -1.117404422875102110e+00
-3.859378207821939188e+00 -3.283783486031838922e-02 -1.110453572620887286e+00
-3.794875953722569140e+00 -8.571274113428671848e-01 -1.141673323620556513e+00
-3.402989003537223223e+00 -4.990510794241510969e-04 -1.039743328807198663e+00
-3.649507920371481529e+00 1.653831264082973596e-02 -1.116174865233362068e+00
-4.143505114634849384e+00 -2.441413077730645188e-03 -1.268014684122279245e+00
-3.559703076214237427e+00 -7.576545233101300569e-01 -1.106205240704183357e+00
-3.552213175867453554e+00 -2.612296529873838619e-02 -1.119513746085898154e+00
-3.892224466603065203e+00 -8.667051781509899078e-01 -1.229321793310990563e+00
-3.788598110013072340e+00 3.866205887734178170e-02 -1.218854784941173497e+00
-3.889065311469483088e+00 -6.731074131236172708e-02 -1.275550077564966855e+00
-3.209730684991300542e+00 -2.720811848372856750e-02 -1.118799551123348612e+00
-4.466857979955410229e+00 -9.582827400259039674e-01 -1.564431031468585420e+00
-4.263048751778047318e+00 1.099695001089738555e-02 -1.561826399109132568e+00
-4.349011169541149968e+00 -2.078470831573630065e-02 -1.596766425578460380e+00
-3.986362085361886187e+00 -9.054388085768837469e-01 -1.517591357594486379e+00
-3.442837302728964044e+00 -7.851257728405723890e-01 -1.310731073290051230e+00
-3.997810046603891720e+00 -9.240026657422210077e-01 -1.530272695162010255e+00
-4.497478684422334894e+00 4.453163984264028874e-02 -1.725909156590698768e+00
-3.817900042451205067e+00 2.470090220252735974e-02 -1.471081510820559712e+00
-3.885279491609521685e+00 -9.099586950456027834e-01 -1.505273249085635534e+00
-3.887404146671605609e+00 -9.143675932287979036e-01 -1.506316812463847077e+00
-5.423045517865237031e+00 -2.304557571611521194e+00 -2.404226156660617786e+00
-4.351004962255431430e+00 -1.845755005577690566e+00 -1.946039564545869904e+00
-5.141404565590895537e+00 6.689034266794962047e-01 -2.428312861002226430e+00
-4.316879000990136106e+00 -1.197627993332318175e+00 -2.085615878967497672e+00
-4.412388542891242160e+00 -1.260722346181905262e+00 -2.160402489693293404e+00
-3.714333822566827426e+00 -1.062175310299514397e+00 -1.844134721182781211e+00
-4.435468640709149923e+00 -1.271255114165809941e+00 -2.208956288415768743e+00
-4.428165640963311667e+00 -1.212525343879562234e+00 -2.230829551091045637e+00
-4.685035801169915359e+00 -9.959570307533947009e-01 -2.364197490389538192e+00
-5.003483190583122742e+00 -1.307796521381350274e+00 -2.529126597986186109e+00
-6.470962943115207366e+00 9.953296431477852702e-01 -3.288311402133635930e+00
-5.038039897462817329e+00 -1.368873223924437665e+00 -2.582047360231241040e+00
-4.684288048795114179e+00 -1.305416610808428413e+00 -2.405913840031662865e+00
-4.132024692927822151e+00 -9.359834005979202898e-01 -2.133612619157658319e+00
-4.124210487583093609e+00 -1.123596314740193725e+00 -2.136645864507356940e+00
-4.116019846497914969e+00 -1.083085592920689066e+00 -2.139907033627385324e+00
-5.069430063948380472e+00 -1.044844867612783057e+00 -2.661179884421079223e+00
-4.992643205088588942e+00 -1.304775757121367619e+00 -2.634307534473782741e+00
-4.453279497811934995e+00 -1.035748379268649932e+00 -2.357124788195072540e+00
-4.425809159192028552e+00 -1.114451185320920246e+00 -2.344817750445524318e+00
-5.547738371220377829e+00 -1.467835579034905136e+00 -2.990816266664765077e+00
-4.257573734758695494e+00 -9.828808700790823139e-01 -2.295328978633005335e+00
-5.578023487610671793e+00 -1.467192423637570631e+00 -3.012527655735342424e+00
-5.521484110570127335e+00 -1.331755011077069284e+00 -3.050401725223010008e+00
-6.289008291440087106e+00 -1.584203638170039286e+00 -3.491071334397721326e+00
-5.344341058351594675e+00 -1.242649932196087992e+00 -2.980259507665601770e+00
